-0.4475 0.07992 0.8907   -0.4475 0.07992 0.8907
-0.8673 -0.2937 0.402   -0.8673 -0.2937 0.402
-0.1258 0.9223 0.3655   -0.1258 0.9223 0.3655
0.1708 0.9844 0.04271   0.1708 0.9844 0.04271
0.249 0.9661 -0.06758   0.249 0.9661 -0.06758
0.3773 0.7839 -0.4931   0.3773 0.7839 -0.4931
-0.07214 0.1913 -0.9789   -0.07214 0.1913 -0.9789
-0.1447 0.003324 -0.9895   -0.1447 0.003324 -0.9895
0.2375 -0.8695 0.4331   0.2375 -0.8695 0.4331
0.04444 -0.8788 0.4752   0.04444 -0.8788 0.4752
-0.6015 -0.7331 0.3172   -0.6015 -0.7331 0.3172
-0.1902 -0.9515 0.2417   -0.1902 -0.9515 0.2417
0.1292 -0.2014 -0.9709   0.1292 -0.2014 -0.9709
0.1694 -0.2618 -0.9501   0.1694 -0.2618 -0.9501
0.2295 -0.937 -0.2635   0.2295 -0.937 -0.2635
0.1453 -0.9894 0.0009342   0.1453 -0.9894 0.0009342
-0.3696 -0.5821 0.7242   -0.3696 -0.5821 0.7242
-0.6443 0.5085 0.5713   -0.6443 0.5085 0.5713
0.4089 0.8392 -0.3587   0.4089 0.8392 -0.3587
0.6049 0.7229 -0.334   0.6049 0.7229 -0.334
0.9829 0.1616 0.0886   0.9829 0.1616 0.0886
0.9869 0.02289 0.1595   0.9869 0.02289 0.1595
0.4935 0.06521 -0.04704   -0.987 -0.1304 0.09408
-0.2984 0.1331 -0.3784   0.5969 -0.2663 0.7569
-0.7919 0.1755 -0.5849   -0.7919 0.1755 -0.5849
-0.7875 0.1642 -0.594   -0.7875 0.1642 -0.594
-0.2511 0.05944 -0.4283   0.5022 -0.1189 0.8566
0.4458 -0.07669 -0.213   -0.8916 0.1534 0.426
0.9823 -0.1815 -0.04729   0.9823 -0.1815 -0.04729
0.9583 -0.2859 -0.003367   0.9583 -0.2859 -0.003367
-0.06408 -0.9922 0.1071   -0.06408 -0.9922 0.1071
-0.1445 -0.9817 0.1241   -0.1445 -0.9817 0.1241
0.0832 -0.4717 0.1435   -0.1664 0.9434 -0.2871
0.4023 0.2429 0.1708   -0.8046 -0.4858 -0.3416
0.63 0.7529 0.1902   0.63 0.7529 0.1902
0.7471 0.5285 0.4033   0.7471 0.5285 0.4033
0.2574 0.4274 0.03232   -0.5149 -0.8548 -0.06464
-0.2005 0.3329 -0.3146   0.401 -0.6657 0.6293
-0.6901 0.2318 -0.6856   -0.6901 0.2318 -0.6856
-0.793 0.1495 -0.5905   -0.793 0.1495 -0.5905
-0.8987 -0.2387 0.3678   -0.8987 -0.2387 0.3678
-0.8331 -0.3418 0.435   -0.8331 -0.3418 0.435
-0.7457 -0.6518 0.1377   -0.7457 -0.6518 0.1377
-0.6456 -0.7623 0.04524   -0.6456 -0.7623 0.04524
-0.268 0.06888 0.9609   -0.268 0.06888 0.9609
-0.1804 0.1876 0.9655   -0.1804 0.1876 0.9655
0.1004 0.3431 0.3496   -0.2008 -0.6862 -0.6992
0.2561 0.4293 0.007914   -0.5123 -0.8587 -0.01583
0.5369 0.5848 -0.608   0.5369 0.5848 -0.608
0.254 0.5372 -0.8043   0.254 0.5372 -0.8043
0.0189 0.4852 -0.8742   0.0189 0.4852 -0.8742
-0.5539 0.4965 -0.6683   -0.5539 0.4965 -0.6683
-0.6324 0.5233 -0.5712   -0.6324 0.5233 -0.5712
-0.6828 0.6687 -0.2943   -0.6828 0.6687 -0.2943
0.08761 0.9125 -0.3996   0.08761 0.9125 -0.3996
0.3965 0.8289 -0.3945   0.3965 0.8289 -0.3945
0.9656 0.1071 -0.237   0.9656 0.1071 -0.237
0.9645 -0.1153 -0.2375   0.9645 -0.1153 -0.2375
-0.113 -0.8359 -0.5371   -0.113 -0.8359 -0.5371
0.4551 -0.7363 -0.5007   0.4551 -0.7363 -0.5007
-0.8667 0.16 -0.4724   -0.8667 0.16 -0.4724
-0.8727 0.2251 -0.4332   -0.8727 0.2251 -0.4332
-0.3845 0.2076 -0.243   0.769 -0.4152 0.486
0.4595 0.1774 0.08588   -0.9191 -0.3547 -0.1718
0.9477 0.1599 0.2761   0.9477 0.1599 0.2761
0.9612 0.2019 0.1882   0.9612 0.2019 0.1882
0.3383 0.5482 -0.7649   0.3383 0.5482 -0.7649
0.3175 0.5696 -0.7581   0.3175 0.5696 -0.7581
0.8476 0.3611 0.3888   0.8476 0.3611 0.3888
0.7244 0.4219 0.5452   0.7244 0.4219 0.5452
-0.01865 0.764 0.6449   -0.01865 0.764 0.6449
-0.4451 0.5825 0.6801   -0.4451 0.5825 0.6801
-0.5951 0.4177 0.6866   -0.5951 0.4177 0.6866
-0.774 0.1133 0.623   -0.774 0.1133 0.623
-0.4358 -0.09024 0.2279   0.8716 0.1805 -0.4559
0.03931 -0.3761 -0.3271   -0.07861 0.7523 0.6542
0.3775 -0.5796 -0.7222   0.3775 -0.5796 -0.7222
0.3163 -0.6275 -0.7115   0.3163 -0.6275 -0.7115
-0.7069 -0.7071 -0.01561   -0.7069 -0.7071 -0.01561
-0.7604 -0.6409 0.1049   -0.7604 -0.6409 0.1049
-0.3364 -0.1889 0.318   0.6728 0.3778 -0.636
-0.02008 0.1484 0.4771   0.04015 -0.2967 -0.9541
0.4039 0.6004 0.6902   0.4039 0.6004 0.6902
0.295 0.6401 0.7094   0.295 0.6401 0.7094
-0.6372 0.4527 0.6237   -0.6372 0.4527 0.6237
-0.8207 0.3343 0.4633   -0.8207 0.3343 0.4633
-0.8439 -0.2121 -0.4929   -0.8439 -0.2121 -0.4929
-0.8576 -0.2364 -0.4568   -0.8576 -0.2364 -0.4568
-0.9073 0.04518 0.4181   -0.9073 0.04518 0.4181
-0.7855 0.02502 0.6184   -0.7855 0.02502 0.6184
0.2407 -0.5817 0.777   0.2407 -0.5817 0.777
0.4543 -0.6425 0.617   0.4543 -0.6425 0.617
0.8067 -0.5684 -0.1617   0.8067 -0.5684 -0.1617
0.7997 -0.5762 -0.1688   0.7997 -0.5762 -0.1688
0.4046 -0.6878 0.6027   0.4046 -0.6878 0.6027
0.2987 -0.656 0.6932   0.2987 -0.656 0.6932
0.2105 -0.3647 0.2696   -0.421 0.7294 -0.5391
0.05567 0.147 -0.4747   -0.1113 -0.2939 0.9493
-0.03248 0.4382 -0.8983   -0.03248 0.4382 -0.8983
-0.0827 0.4849 -0.8706   -0.0827 0.4849 -0.8706
-0.5678 0.3355 0.7517   -0.5678 0.3355 0.7517
-0.5611 0.2511 0.7887   -0.5611 0.2511 0.7887
-0.3108 -0.2167 0.3263   0.6216 0.4333 -0.6526
-0.1821 -0.4572 0.08852   0.3642 0.9144 -0.177
0.06826 -0.925 -0.3739   0.06826 -0.925 -0.3739
0.1696 -0.9227 -0.3463   0.1696 -0.9227 -0.3463
0.7603 -0.1901 0.6211   0.7603 -0.1901 0.6211
0.7706 -0.1142 0.627   0.7706 -0.1142 0.627
0.4783 -0.1179 0.08552   -0.9566 0.2358 -0.171
0.1917 -0.1215 -0.4455   -0.3833 0.2429 0.8911
-0.1006 -0.1251 -0.987   -0.1006 -0.1251 -0.987
-0.1629 -0.07188 -0.984   -0.1629 -0.07188 -0.984
-0.2349 0.282 -0.3396   0.4699 -0.5639 0.6791
-0.2619 0.4144 -0.09827   0.5238 -0.8289 0.1965
-0.3339 0.7683 0.5462   -0.3339 0.7683 0.5462
-0.3767 0.6951 0.6123   -0.3767 0.6951 0.6123
-0.7128 -0.6453 0.2749   -0.7128 -0.6453 0.2749
-0.6552 -0.7237 0.2169   -0.6552 -0.7237 0.2169
-0.1744 -0.4622 0.07738   0.3488 0.9243 -0.1548
0.4752 -0.1089 -0.1112   -0.9504 0.2177 0.2223
0.956 0.1526 -0.2507   0.956 0.1526 -0.2507
0.9919 0.08031 -0.09794   0.9919 0.08031 -0.09794
0.8182 -0.3126 0.4825   0.8182 -0.3126 0.4825
0.7132 -0.4201 0.5611   0.7132 -0.4201 0.5611
0.3536 -0.3257 -0.1375   -0.7072 0.6514 0.275
0.2826 -0.307 -0.2754   -0.5652 0.6141 0.5509
-0.07706 -0.2127 -0.9741   -0.07706 -0.2127 -0.9741
-0.05748 -0.1892 -0.9802   -0.05748 -0.1892 -0.9802
0.94 -0.05017 0.3374   0.94 -0.05017 0.3374
0.9621 -0.05338 0.2676   0.9621 -0.05338 0.2676
0.6609 -0.134 -0.7384   0.6609 -0.134 -0.7384
0.6102 -0.1163 -0.7837   0.6102 -0.1163 -0.7837
0.5881 0.284 0.7573   0.5881 0.284 0.7573
0.3878 0.5024 0.7728   0.3878 0.5024 0.7728
0.09733 0.7769 0.6221   0.09733 0.7769 0.6221
-0.3178 0.9033 0.2882   -0.3178 0.9033 0.2882
-0.5388 0.8408 0.05261   -0.5388 0.8408 0.05261
-0.6398 0.7437 -0.1937   -0.6398 0.7437 -0.1937
0.8759 0.2743 -0.3969   0.8759 0.2743 -0.3969
0.9208 0.1148 -0.3727   0.9208 0.1148 -0.3727
0.3131 -0.9492 -0.03114   0.3131 -0.9492 -0.03114
0.196 -0.9801 0.0316   0.196 -0.9801 0.0316
-0.05835 -0.4708 0.1579   0.1167 0.9416 -0.3159
-0.365 0.1432 0.3102   0.7301 -0.2863 -0.6205
-0.6194 0.6525 0.4366   -0.6194 0.6525 0.4366
-0.6477 0.6601 0.3804   -0.6477 0.6601 0.3804
-0.3922 -0.5454 -0.7407   -0.3922 -0.5454 -0.7407
-0.3298 -0.5315 -0.7802   -0.3298 -0.5315 -0.7802
0.3225 0.926 -0.1963   0.3225 0.926 -0.1963
0.3102 0.9377 -0.1565   0.3102 0.9377 -0.1565
0.01031 0.4749 -0.1561   -0.02062 -0.9498 0.3122
-0.4294 -0.2036 -0.1555   0.8587 0.4073 0.3109
-0.7293 -0.6664 -0.155   -0.7293 -0.6664 -0.155
-0.6809 -0.7047 -0.1995   -0.6809 -0.7047 -0.1995
0.6431 -0.08469 -0.7611   0.6431 -0.08469 -0.7611
0.6311 0.6007 -0.4908   0.6311 0.6007 -0.4908
0.3532 0.2459 -0.2545   -0.7065 -0.4918 0.509
-0.1737 -0.427 0.1936   0.3475 0.854 -0.3872
-0.4516 -0.7818 0.4299   -0.4516 -0.7818 0.4299
-0.4177 -0.775 0.4742   -0.4177 -0.775 0.4742
0.8414 0.3156 0.4387   0.8414 0.3156 0.4387
0.8765 0.2938 0.3813   0.8765 0.2938 0.3813
0.2097 -0.9311 -0.2985   0.2097 -0.9311 -0.2985
0.1009 -0.9664 -0.2366   0.1009 -0.9664 -0.2366
-0.4015 -0.3856 0.8307   -0.4015 -0.3856 0.8307
-0.4042 -0.2206 0.8877   -0.4042 -0.2206 0.8877
0.2049 0.9599 0.1911   0.2049 0.9599 0.1911
0.3327 0.9409 0.06394   0.3327 0.9409 0.06394
0.8972 0.03804 -0.44   0.8972 0.03804 -0.44
0.907 -0.1559 -0.3911   0.907 -0.1559 -0.3911
0.3793 -0.7478 0.545   0.3793 -0.7478 0.545
0.3284 -0.6812 0.6543   0.3284 -0.6812 0.6543
0.4683 0.6591 0.5885   0.4683 0.6591 0.5885
0.4598 0.6978 0.5492   0.4598 0.6978 0.5492
0.3263 0.1129 0.3616   -0.6526 -0.2258 -0.7233
0.2063 -0.4124 0.1932   -0.4127 0.8248 -0.3865
0.07278 -0.9973 0.005738   0.07278 -0.9973 0.005738
0.3073 -0.9433 0.1252   0.3073 -0.9433 0.1252
0.5262 -0.8115 0.2543   0.5262 -0.8115 0.2543
0.6638 -0.6421 0.3836   0.6638 -0.6421 0.3836
-0.8834 -0.4594 0.09221   -0.8834 -0.4594 0.09221
-0.9186 -0.3613 0.1603   -0.9186 -0.3613 0.1603
-0.211 0.3392 0.9167   -0.211 0.3392 0.9167
-0.1682 0.3639 0.9161   -0.1682 0.3639 0.9161
-0.7742 -0.4904 -0.4002   -0.7742 -0.4904 -0.4002
-0.6712 -0.6379 -0.3775   -0.6712 -0.6379 -0.3775
-0.08765 -0.9929 0.08099   -0.08765 -0.9929 0.08099
0.3327 -0.9101 -0.247   0.3327 -0.9101 -0.247
0.7217 -0.113 0.683   0.7217 -0.113 0.683
0.6608 -0.111 0.7423   0.6608 -0.111 0.7423
-0.2773 -0.904 0.3254   -0.2773 -0.904 0.3254
0.2661 -0.9631 0.03927   0.2661 -0.9631 0.03927
0.9082 0.4179 -0.02083   0.9082 0.4179 -0.02083
0.8908 0.4514 0.05137   0.8908 0.4514 0.05137
0.1183 -0.4375 0.8914   0.1183 -0.4375 0.8914
0.01969 -0.5634 0.8259   0.01969 -0.5634 0.8259
-0.204 -0.9219 -0.3293   -0.204 -0.9219 -0.3293
-0.4658 -0.88 0.09345   -0.4658 -0.88 0.09345
0.5643 0.08051 0.8216   0.5643 0.08051 0.8216
0.6242 0.1284 0.7706   0.6242 0.1284 0.7706
0.4935 -0.04556 0.06595   -0.9871 0.09113 -0.1319
0.444 -0.1115 -0.201   -0.888 0.223 0.4021
0.3133 -0.2855 -0.9057   0.3133 -0.2855 -0.9057
0.2092 -0.2445 -0.9468   0.2092 -0.2445 -0.9468
-0.8081 0.5711 -0.1443   -0.8081 0.5711 -0.1443
-0.7605 0.6483 -0.03663   -0.7605 0.6483 -0.03663
0.5515 0.7452 0.3748   0.5515 0.7452 0.3748
0.886 0.4619 0.04037   0.886 0.4619 0.04037
-0.09576 -0.833 0.545   -0.09576 -0.833 0.545
-0.1796 -0.8182 0.5462   -0.1796 -0.8182 0.5462
-0.2803 -0.2169 0.3527   0.5607 0.4337 -0.7054
-0.3642 0.2841 0.1915   0.7284 -0.5681 -0.383
-0.4649 0.8854 -0.002026   -0.4649 0.8854 -0.002026
-0.4739 0.8802 -0.02686   -0.4739 0.8802 -0.02686
-0.4267 0.2598 0.02042   0.8534 -0.5196 -0.04083
-0.383 -0.3149 0.06422   0.766 0.6299 -0.1284
-0.3358 -0.9353 0.1115   -0.3358 -0.9353 0.1115
-0.3138 -0.9245 0.2164   -0.3138 -0.9245 0.2164
-0.205 0.01191 0.9787   -0.205 0.01191 0.9787
-0.1889 0.09842 0.977   -0.1889 0.09842 0.977
-0.1767 -0.07033 0.4624   0.3534 0.1407 -0.9249
-0.1576 -0.3329 -0.3382   0.3153 0.6657 0.6763
-0.1454 -0.5016 -0.8528   -0.1454 -0.5016 -0.8528
-0.1214 -0.4775 -0.8702   -0.1214 -0.4775 -0.8702
-0.01189 -0.1928 -0.4612   0.02378 0.3857 0.9223
0.1941 0.3426 0.3081   -0.3881 -0.6853 -0.6163
0.3036 0.6273 0.7172   0.3036 0.6273 0.7172
0.3178 0.5949 0.7383   0.3178 0.5949 0.7383
0.2763 0.09947 0.4047   -0.5526 -0.1989 -0.8093
0.231 -0.4416 0.04031   -0.462 0.8832 -0.08063
0.1895 -0.937 -0.2933   0.1895 -0.937 -0.2933
0.2447 -0.9099 -0.3349   0.2447 -0.9099 -0.3349
0.9261 0.3513 -0.1378   0.9261 0.3513 -0.1378
0.8849 0.4603 -0.07125   0.8849 0.4603 -0.07125
-0.6672 0.3579 0.6533   -0.6672 0.3579 0.6533
-0.5291 0.7722 0.3518   -0.5291 0.7722 0.3518
-0.344 0.3619 -0.02724   0.6879 -0.7237 0.05448
-0.1282 -0.1164 -0.4691   0.2564 0.2328 0.9381
0.0569 -0.5267 -0.8481   0.0569 -0.5267 -0.8481
0.08778 -0.4575 -0.8849   0.08778 -0.4575 -0.8849
0.06463 0.7923 -0.6067   0.06463 0.7923 -0.6067
0.07894 0.8445 -0.5298   0.07894 0.8445 -0.5298
0.1675 0.3673 -0.295   -0.335 -0.7345 0.5901
0.3075 -0.3869 0.0759   -0.615 0.7738 -0.1518
0.3961 -0.8641 0.3106   0.3961 -0.8641 0.3106
0.3768 -0.8707 0.3162   0.3768 -0.8707 0.3162
0.1947 -0.445 0.1186   -0.3894 0.89 -0.2372
-0.1622 0.3893 -0.2687   0.3244 -0.7785 0.5373
-0.3443 0.8149 -0.4663   -0.3443 0.8149 -0.4663
-0.3753 0.7827 -0.4965   -0.3753 0.7827 -0.4965
-0.3005 -0.8802 -0.3673   -0.3005 -0.8802 -0.3673
-0.3168 -0.8648 -0.3896   -0.3168 -0.8648 -0.3896
-0.5336 0.4672 -0.705   -0.5336 0.4672 -0.705
-0.5175 0.6158 -0.5941   -0.5175 0.6158 -0.5941
-0.1942 0.7545 0.6269   -0.1942 0.7545 0.6269
-0.5661 -0.164 0.8079   -0.5661 -0.164 0.8079
-0.6881 -0.511 0.5151   -0.6881 -0.511 0.5151
-0.6277 -0.7112 0.3164   -0.6277 -0.7112 0.3164
0.7626 -0.644 0.061   0.7626 -0.644 0.061
0.7613 -0.644 0.07525   0.7613 -0.644 0.07525
-0.5446 -0.707 0.4512   -0.5446 -0.707 0.4512
-0.6018 -0.6601 0.4497   -0.6018 -0.6601 0.4497
-0.2051 -0.3859 0.2429   0.4102 0.7718 -0.4858
0.4791 0.08696 -0.1137   -0.9582 -0.1739 0.2273
0.8758 0.3611 -0.3204   0.8758 0.3611 -0.3204
0.8558 0.3925 -0.3369   0.8558 0.3925 -0.3369
0.3552 0.279 -0.2144   -0.7104 -0.5581 0.4288
-0.4923 0.08702 -0.007029   0.9846 -0.174 0.01406
-0.993 -0.02641 0.1155   -0.993 -0.02641 0.1155
-0.9883 -0.1522 -0.01039   -0.9883 -0.1522 -0.01039
-0.5989 -0.5493 -0.5828   -0.5989 -0.5493 -0.5828
-0.3319 -0.6543 -0.6795   -0.3319 -0.6543 -0.6795
0.6559 -0.6618 -0.363   0.6559 -0.6618 -0.363
0.8463 -0.4517 -0.2824   0.8463 -0.4517 -0.2824
0.936 0.3 -0.1841   0.936 0.3 -0.1841
0.8126 0.542 -0.2142   0.8126 0.542 -0.2142
-0.2222 0.7552 -0.6166   -0.2222 0.7552 -0.6166
-0.406 0.6526 -0.6397   -0.406 0.6526 -0.6397
-0.7363 -0.5997 -0.3135   -0.7363 -0.5997 -0.3135
-0.6295 -0.7574 -0.1734   -0.6295 -0.7574 -0.1734
0.1648 -0.8942 0.4163   0.1648 -0.8942 0.4163
0.2608 -0.8287 0.4953   0.2608 -0.8287 0.4953
0.01681 -0.351 0.3557   -0.03361 0.7021 -0.7113
-0.335 0.3376 0.1543   0.6699 -0.6752 -0.3087
-0.5789 0.8152 0.01471   -0.5789 0.8152 0.01471
-0.5517 0.8215 0.144   -0.5517 0.8215 0.144
-0.2044 0.425 0.8818   -0.2044 0.425 0.8818
0.03981 0.8695 0.4923   0.03981 0.8695 0.4923
-0.8078 0.3476 0.476   -0.8078 0.3476 0.476
-0.9002 0.1961 0.3888   -0.9002 0.1961 0.3888
-0.0644 -0.6105 -0.7894   -0.0644 -0.6105 -0.7894
-0.005111 -0.5691 -0.8222   -0.005111 -0.5691 -0.8222
-0.008565 0.05764 -0.4966   0.01713 -0.1153 0.9932
-0.0103 0.3731 -0.3327   0.02061 -0.7462 0.6654
-0.01376 0.9999 -0.00703   -0.01376 0.9999 -0.00703
-0.0811 0.9896 0.1187   -0.0811 0.9896 0.1187
-0.6535 0.05219 0.7551   -0.6535 0.05219 0.7551
-0.7721 -0.1727 0.6116   -0.7721 -0.1727 0.6116
-0.8918 -0.4393 0.1086   -0.8918 -0.4393 0.1086
-0.8831 -0.457 -0.106   -0.8831 -0.457 -0.106
0.01595 0.9982 -0.05791   0.01595 0.9982 -0.05791
0.05357 0.996 -0.07186   0.05357 0.996 -0.07186
-0.06678 0.4681 -0.1626   0.1336 -0.9362 0.3251
-0.2459 -0.3177 -0.2976   0.4919 0.6355 0.5952
-0.3663 -0.8456 -0.3883   -0.3663 -0.8456 -0.3883
-0.3413 -0.7934 -0.504   -0.3413 -0.7934 -0.504
-0.1037 -0.03632 -0.9939   -0.1037 -0.03632 -0.9939
-0.003149 -0.1356 -0.9908   -0.003149 -0.1356 -0.9908
0.08924 -0.5756 -0.8128   0.08924 -0.5756 -0.8128
0.0937 -0.7694 -0.6319   0.0937 -0.7694 -0.6319
-0.1896 -0.4314 -0.1672   0.3792 0.8628 0.3345
-0.424 -0.1516 0.2173   0.8481 0.3032 -0.4346
-0.7073 0.1864 0.6819   -0.7073 0.1864 0.6819
-0.7081 0.1961 0.6783   -0.7081 0.1961 0.6783
-0.4444 -0.07039 0.2181   0.8888 0.1408 -0.4361
-0.1468 -0.3711 -0.3012   0.2936 0.7422 0.6025
0.1169 -0.6376 -0.7615   0.1169 -0.6376 -0.7615
0.1503 -0.6388 -0.7545   0.1503 -0.6388 -0.7545
0.07725 -0.3983 -0.2922   -0.1545 0.7967 0.5843
-0.04745 0.01249 0.4976   0.0949 -0.02497 -0.9952
-0.1205 0.253 0.9599   -0.1205 0.253 0.9599
-0.1163 0.388 0.9143   -0.1163 0.388 0.9143
0.01073 0.9997 -0.02407   0.01073 0.9997 -0.02407
-0.01893 0.9975 -0.06827   -0.01893 0.9975 -0.06827
-0.5063 0.07876 0.8588   -0.5063 0.07876 0.8588
-0.4237 0.09048 0.9013   -0.4237 0.09048 0.9013
0.3635 0.7063 0.6075   0.3635 0.7063 0.6075
0.5589 0.777 0.2895   0.5589 0.777 0.2895
0.6694 0.7234 -0.1692   0.6694 0.7234 -0.1692
0.7115 0.7027 0.007137   0.7115 0.7027 0.007137
0.6439 -0.3621 0.674   0.6439 -0.3621 0.674
0.5195 -0.3133 0.795   0.5195 -0.3133 0.795
0.1042 0.3116 0.9445   0.1042 0.3116 0.9445
-0.1764 0.3285 0.9279   -0.1764 0.3285 0.9279
-0.6343 -0.1128 0.7648   -0.6343 -0.1128 0.7648
-0.7571 0.1108 0.6438   -0.7571 0.1108 0.6438
-0.9016 -0.005039 0.4325   -0.9016 -0.005039 0.4325
-0.973 -0.1383 0.1846   -0.973 -0.1383 0.1846
-0.4364 -0.1045 0.2206   0.8728 0.209 -0.4412
0.4128 -0.05102 0.2775   -0.8256 0.102 -0.555
0.9494 -0.01722 0.3135   0.9494 -0.01722 0.3135
0.8582 0.169 0.4847   0.8582 0.169 0.4847
0.632 0.3785 0.6762   0.632 0.3785 0.6762
0.4159 0.4941 0.7635   0.4159 0.4941 0.7635
0.3013 0.1616 0.3648   -0.6026 -0.3232 -0.7296
0.1119 -0.3882 -0.2945   -0.2238 0.7764 0.5891
-0.002629 -0.7207 -0.6933   -0.002629 -0.7207 -0.6933
-0.0483 -0.7475 -0.6626   -0.0483 -0.7475 -0.6626
-0.3895 -0.2049 0.898   -0.3895 -0.2049 0.898
-0.3627 -0.2034 0.9094   -0.3627 -0.2034 0.9094
0.3937 -0.7451 -0.5383   0.3937 -0.7451 -0.5383
0.4268 -0.6736 -0.6034   0.4268 -0.6736 -0.6034
0.3073 0.07313 -0.3876   -0.6147 -0.1463 0.7751
0.2819 0.232 -0.3416   -0.5638 -0.464 0.6833
0.1624 0.9787 -0.1257   0.1624 0.9787 -0.1257
0.1319 0.9745 -0.1816   0.1319 0.9745 -0.1816
0.006869 -0.07415 -0.9972   0.006869 -0.07415 -0.9972
0.007375 -0.2256 -0.9742   0.007375 -0.2256 -0.9742
0.2032 -0.7869 0.5827   0.2032 -0.7869 0.5827
0.1804 -0.8446 0.5041   0.1804 -0.8446 0.5041
-0.4111 -0.9034 0.122   -0.4111 -0.9034 0.122
0.2047 -0.9764 0.06855   0.2047 -0.9764 0.06855
-0.1071 -0.559 -0.8222   -0.1071 -0.559 -0.8222
-0.1361 -0.4024 -0.9053   -0.1361 -0.4024 -0.9053
0.01378 0.1452 -0.4782   -0.02755 -0.2904 0.9565
0.08663 0.4113 -0.2707   -0.1733 -0.8227 0.5415
0.2365 0.959 0.1563   0.2365 0.959 0.1563
0.1149 0.9549 0.2739   0.1149 0.9549 0.2739
-0.6996 0.4487 0.556   -0.6996 0.4487 0.556
-0.8339 0.1446 0.5326   -0.8339 0.1446 0.5326
-0.8 -0.5171 0.3041   -0.8 -0.5171 0.3041
-0.6793 -0.6996 0.2216   -0.6793 -0.6996 0.2216
0.9694 -0.2282 0.09009   0.9694 -0.2282 0.09009
0.9765 -0.2057 -0.06346   0.9765 -0.2057 -0.06346
0.3967 -0.2559 -0.8816   0.3967 -0.2559 -0.8816
0.1785 -0.4841 -0.8566   0.1785 -0.4841 -0.8566
0.0253 -0.775 -0.6315   0.0253 -0.775 -0.6315
-0.08408 -0.9268 -0.366   -0.08408 -0.9268 -0.366
0.003613 0.03602 0.9993   0.003613 0.03602 0.9993
0.007169 0.1587 0.9873   0.007169 0.1587 0.9873
-0.02735 0.8937 -0.4479   -0.02735 0.8937 -0.4479
-0.1508 0.8494 -0.5057   -0.1508 0.8494 -0.5057
-0.9703 0.175 -0.1669   -0.9703 0.175 -0.1669
-0.9783 -0.182 0.09922   -0.9783 -0.182 0.09922
-0.9027 -0.3544 0.2439   -0.9027 -0.3544 0.2439
-0.7515 -0.5236 -0.4013   -0.7515 -0.5236 -0.4013
-0.4449 0.8618 0.2435   -0.4449 0.8618 0.2435
-0.4283 0.872 0.237   -0.4283 0.872 0.237
-0.5436 -0.5835 -0.6033   -0.5436 -0.5835 -0.6033
-0.4246 -0.6553 -0.6247   -0.4246 -0.6553 -0.6247
0.9046 -0.3523 -0.2402   0.9046 -0.3523 -0.2402
0.9068 -0.4163 -0.06688   0.9068 -0.4163 -0.06688
0.4202 -0.7789 0.4656   0.4202 -0.7789 0.4656
0.1954 -0.844 0.4995   0.1954 -0.844 0.4995
-0.6899 -0.5976 -0.4086   -0.6899 -0.5976 -0.4086
-0.756 -0.4929 -0.4307   -0.756 -0.4929 -0.4307
-0.2643 0.622 0.737   -0.2643 0.622 0.737
0.1419 0.5224 0.8408   0.1419 0.5224 0.8408
0.2287 0.4813 0.8462   0.2287 0.4813 0.8462
0.5933 0.3524 0.7237   0.5933 0.3524 0.7237
0.5323 0.7292 -0.43   0.5323 0.7292 -0.43
0.4376 0.7388 -0.5126   0.4376 0.7388 -0.5126
-0.8818 0.1631 0.4426   -0.8818 0.1631 0.4426
-0.8639 0.1958 0.464   -0.8639 0.1958 0.464
0.2733 0.9618 0.0132   0.2733 0.9618 0.0132
0.2074 0.977 -0.04918   0.2074 0.977 -0.04918
-0.7188 0.6761 -0.1618   -0.7188 0.6761 -0.1618
-0.7549 0.5988 -0.2677   -0.7549 0.5988 -0.2677
0.2034 0.4437 -0.8728   0.2034 0.4437 -0.8728
0.2238 0.3077 -0.9248   0.2238 0.3077 -0.9248
-0.5448 -0.4582 -0.7023   -0.5448 -0.4582 -0.7023
-0.5075 -0.5738 -0.6428   -0.5075 -0.5738 -0.6428
0.6832 -0.5856 -0.4362   0.6832 -0.5856 -0.4362
0.7882 -0.4997 -0.3591   0.7882 -0.4997 -0.3591
0.4961 0.04581 -0.04215   -0.9922 -0.09163 0.08429
0.335 0.3467 0.1326   -0.67 -0.6933 -0.2653
0.0429 0.8922 0.4496   0.0429 0.8922 0.4496
0.02026 0.8717 0.4897   0.02026 0.8717 0.4897
0.1696 0.2044 0.4236   -0.3392 -0.4087 -0.8473
0.2576 -0.1888 0.3847   -0.5151 0.3775 -0.7695
0.4069 -0.8561 0.3187   0.4069 -0.8561 0.3187
0.7264 -0.6468 -0.2324   0.7264 -0.6468 -0.2324
0.8908 0.1644 0.4235   0.8908 0.1644 0.4235
0.8298 0.3475 0.4366   0.8298 0.3475 0.4366
-0.04895 0.8661 -0.4975   -0.04895 0.8661 -0.4975
-0.1323 0.8109 -0.57   -0.1323 0.8109 -0.57
-0.1072 0.1897 -0.45   0.2144 -0.3794 0.9001
-0.08534 -0.3511 -0.3456   0.1707 0.7023 0.6911
-0.06023 -0.9724 -0.2256   -0.06023 -0.9724 -0.2256
-0.1325 -0.9883 -0.07616   -0.1325 -0.9883 -0.07616
-0.5791 -0.4572 0.6749   -0.5791 -0.4572 0.6749
-0.6152 -0.26 0.7442   -0.6152 -0.26 0.7442
-0.139 0.9893 0.04482   -0.139 0.9893 0.04482
-0.007462 0.9967 -0.08126   -0.007462 0.9967 -0.08126
0.7515 0.1728 -0.6367   0.7515 0.1728 -0.6367
0.8906 -0.00679 -0.4547   0.8906 -0.00679 -0.4547
-0.5165 0.7982 -0.3101   -0.5165 0.7982 -0.3101
-0.03991 0.7102 -0.7029   -0.03991 0.7102 -0.7029
-0.5987 -0.2444 -0.7628   -0.5987 -0.2444 -0.7628
-0.6969 -0.3674 -0.616   -0.6969 -0.3674 -0.616
-0.8083 -0.2241 0.5445   -0.8083 -0.2241 0.5445
-0.8395 -0.08877 0.5361   -0.8395 -0.08877 0.5361
-0.9071 0.3944 -0.1472   -0.9071 0.3944 -0.1472
-0.7316 0.4168 -0.5395   -0.7316 0.4168 -0.5395
-0.5108 0.3089 -0.8023   -0.5108 0.3089 -0.8023
-0.3217 0.1567 -0.9338   -0.3217 0.1567 -0.9338
-0.3401 -0.2417 -0.2755   0.6802 0.4834 0.5511
-0.345 -0.3477 -0.1004   0.69 0.6955 0.2007
-0.3633 -0.7462 0.5579   -0.3633 -0.7462 0.5579
-0.4014 -0.6373 0.6578   -0.4014 -0.6373 0.6578
-0.6196 0.3962 0.6776   -0.6196 0.3962 0.6776
-0.6898 0.4698 0.5508   -0.6898 0.4698 0.5508
-0.9274 -0.1683 -0.334   -0.9274 -0.1683 -0.334
-0.8728 -0.261 -0.4124   -0.8728 -0.261 -0.4124
-0.4054 -0.2551 -0.1433   0.8108 0.5103 0.2867
0.3322 -0.246 0.2813   -0.6644 0.4919 -0.5627
0.7996 -0.2401 0.5504   0.7996 -0.2401 0.5504
0.8364 -0.2245 0.5   0.8364 -0.2245 0.5
0.0629 -0.011 -0.998   0.0629 -0.011 -0.998
-0.01515 0.04374 -0.9989   -0.01515 0.04374 -0.9989
-0.1753 0.2974 -0.3617   0.3506 -0.5947 0.7234
-0.2573 0.4272 -0.03543   0.5147 -0.8545 0.07086
-0.4175 0.6809 0.6018   -0.4175 0.6809 0.6018
-0.3549 0.5995 0.7174   -0.3549 0.5995 0.7174
0.3698 -0.4016 0.8378   0.3698 -0.4016 0.8378
0.3407 -0.5465 0.765   0.3407 -0.5465 0.765
-0.6652 -0.7465 0.01369   -0.6652 -0.7465 0.01369
-0.6498 -0.7364 -0.1884   -0.6498 -0.7364 -0.1884
0.09213 -0.5493 -0.8305   0.09213 -0.5493 -0.8305
0.2182 -0.4486 -0.8667   0.2182 -0.4486 -0.8667
0.1847 -0.09535 -0.4547   -0.3695 0.1907 0.9095
0.1332 0.4477 0.1785   -0.2665 -0.8953 -0.3569
0.09973 0.8009 0.5904   0.09973 0.8009 0.5904
-0.02778 0.9424 0.3334   -0.02778 0.9424 0.3334
-0.09827 0.9855 0.1381   -0.09827 0.9855 0.1381
-0.3039 0.9334 0.1907   -0.3039 0.9334 0.1907
-0.3215 0.9071 0.2718   -0.3215 0.9071 0.2718
-0.4263 0.7146 0.5546   -0.4263 0.7146 0.5546
-0.6746 -0.09415 -0.7322   -0.6746 -0.09415 -0.7322
-0.6903 -0.214 -0.6912   -0.6903 -0.214 -0.6912
-0.655 -0.624 0.4262   -0.655 -0.624 0.4262
-0.3117 -0.5953 0.7406   -0.3117 -0.5953 0.7406
-0.1754 -0.5622 0.8082   -0.1754 -0.5622 0.8082
0.2277 -0.3344 0.9145   0.2277 -0.3344 0.9145
0.6274 0.569 0.5315   0.6274 0.569 0.5315
0.5329 0.8076 0.2525   0.5329 0.8076 0.2525
0.2806 0.9553 -0.09268   0.2806 0.9553 -0.09268
0.179 0.9312 -0.3175   0.179 0.9312 -0.3175
0.827 -0.3931 -0.4018   0.827 -0.3931 -0.4018
0.7471 -0.6143 -0.2541   0.7471 -0.6143 -0.2541
0.3477 -0.9166 0.1972   0.3477 -0.9166 0.1972
0.3389 -0.8189 0.4631   0.3389 -0.8189 0.4631
0.599 -0.4108 0.6873   0.599 -0.4108 0.6873
0.5845 -0.07865 0.8076   0.5845 -0.07865 0.8076
-0.07188 0.5203 0.851   -0.07188 0.5203 0.851
-0.1782 0.6147 0.7684   -0.1782 0.6147 0.7684
0.0204 0.4197 0.271   -0.04081 -0.8394 -0.542
0.2803 0.1645 -0.38   -0.5606 -0.3289 0.76
0.4788 -0.03052 -0.8774   0.4788 -0.03052 -0.8774
0.453 -0.09008 -0.8869   0.453 -0.09008 -0.8869
0.1107 -0.2185 -0.4359   -0.2213 0.4371 0.8718
-0.3085 -0.3758 0.1165   0.6171 0.7516 -0.2329
-0.6509 -0.5043 0.5675   -0.6509 -0.5043 0.5675
-0.7325 -0.4925 0.4699   -0.7325 -0.4925 0.4699
-0.8312 -0.3102 -0.4614   -0.8312 -0.3102 -0.4614
-0.7747 -0.2255 -0.5908   -0.7747 -0.2255 -0.5908
-0.378 0.03359 -0.3255   0.756 -0.06718 0.6511
0.2343 0.4336 0.08401   -0.4687 -0.8672 -0.168
0.631 0.6927 0.3493   0.631 0.6927 0.3493
0.6294 0.6871 0.3631   0.6294 0.6871 0.3631
0.2343 0.4056 0.1748   -0.4686 -0.8112 -0.3497
-0.4651 -0.09274 -0.1584   0.9302 0.1855 0.3168
-0.8601 -0.3742 -0.3466   -0.8601 -0.3742 -0.3466
-0.9088 -0.2864 -0.3034   -0.9088 -0.2864 -0.3034
-0.7202 0.6564 0.2247   -0.7202 0.6564 0.2247
-0.4228 0.8868 0.1867   -0.4228 0.8868 0.1867
-0.0901 0.9951 0.04055   -0.0901 0.9951 0.04055
0.1738 0.9841 -0.03517   0.1738 0.9841 -0.03517
0.1467 0.4334 0.2015   -0.2934 -0.8669 -0.4031
0.1173 -0.163 0.4579   -0.2346 0.326 -0.9158
0.09018 -0.7137 0.6946   0.09018 -0.7137 0.6946
0.1154 -0.84 0.5302   0.1154 -0.84 0.5302
0.2273 -0.9437 -0.2405   0.2273 -0.9437 -0.2405
0.2927 -0.829 -0.4766   0.2927 -0.829 -0.4766
0.589 0.363 -0.722   0.589 0.363 -0.722
0.5681 0.526 -0.6329   0.5681 0.526 -0.6329
-0.04565 0.7491 0.6609   -0.04565 0.7491 0.6609
-0.04361 0.683 0.7291   -0.04361 0.683 0.7291
-0.1422 0.2165 0.4277   0.2844 -0.4329 -0.8554
-0.276 -0.4165 0.01871   0.552 0.833 -0.03741
-0.3746 -0.883 -0.2827   -0.3746 -0.883 -0.2827
-0.3427 -0.8881 -0.3064   -0.3427 -0.8881 -0.3064
-0.08715 -0.4717 -0.1411   0.1743 0.9434 0.2821
0.3778 0.2859 0.1597   -0.7557 -0.5717 -0.3195
0.6334 0.7022 0.325   0.6334 0.7022 0.325
0.6351 0.7014 0.3235   0.6351 0.7014 0.3235
0.3873 0.2788 0.1492   -0.7747 -0.5575 -0.2985
-0.05225 -0.4709 -0.1598   0.1045 0.9418 0.3196
-0.3001 -0.8935 -0.334   -0.3001 -0.8935 -0.334
-0.1501 -0.9519 -0.267   -0.1501 -0.9519 -0.267
0.5606 -0.007006 -0.828   0.5606 -0.007006 -0.828
0.5887 0.001237 -0.8083   0.5887 0.001237 -0.8083
0.0653 -0.9971 0.03996   0.0653 -0.9971 0.03996
-0.005043 -0.9966 0.08176   -0.005043 -0.9966 0.08176
-0.1145 -0.4671 -0.1369   0.2291 0.9341 0.2738
-0.2464 0.1707 -0.4002   0.4928 -0.3413 0.8004
-0.3559 0.7002 -0.6189   -0.3559 0.7002 -0.6189
0.1783 0.5953 -0.7835   0.1783 0.5953 -0.7835
-0.2979 0.5443 0.7842   -0.2979 0.5443 0.7842
-0.6121 0.6969 0.3736   -0.6121 0.6969 0.3736
-0.7102 -0.7017 0.05698   -0.7102 -0.7017 0.05698
0.05436 -0.9924 0.1107   0.05436 -0.9924 0.1107
0.7704 -0.4391 -0.4623   0.7704 -0.4391 -0.4623
0.7932 -0.2301 -0.5638   0.7932 -0.2301 -0.5638
0.06109 0.7554 -0.6524   0.06109 0.7554 -0.6524
-0.7775 0.2823 -0.562   -0.7775 0.2823 -0.562
0.8242 0.4333 -0.3647   0.8242 0.4333 -0.3647
0.8567 0.3892 -0.3385   0.8567 0.3892 -0.3385
0.4031 0.09946 -0.2787   -0.8061 -0.1989 0.5573
-0.3033 -0.3516 -0.1854   0.6066 0.7032 0.3709
-0.7569 -0.6413 -0.1256   -0.7569 -0.6413 -0.1256
-0.7673 -0.6358 -0.08368   -0.7673 -0.6358 -0.08368
-0.3749 -0.3227 0.07288   0.7498 0.6455 -0.1458
0.2971 0.2133 0.341   -0.5941 -0.4267 -0.6819
0.6895 0.5264 0.4975   0.6895 0.5264 0.4975
0.8645 0.2948 0.407   0.8645 0.2948 0.407
0.343 -0.01205 0.3636   -0.6861 0.02411 -0.7271
-0.1982 -0.3306 0.3185   0.3965 0.6612 -0.6369
-0.7197 -0.6375 0.275   -0.7197 -0.6375 0.275
-0.7751 -0.5999 0.1983   -0.7751 -0.5999 0.1983
-0.2791 0.6304 -0.7244   -0.2791 0.6304 -0.7244
-0.2592 0.6261 -0.7354   -0.2592 0.6261 -0.7354
-0.522 -0.8403 0.1464   -0.522 -0.8403 0.1464
-0.4356 -0.8894 0.1383   -0.4356 -0.8894 0.1383
0.7157 -0.3645 -0.5958   0.7157 -0.3645 -0.5958
0.4807 0.05746 -0.875   0.4807 0.05746 -0.875
0.03038 -0.9898 -0.139   0.03038 -0.9898 -0.139
0.09076 -0.9875 -0.1291   0.09076 -0.9875 -0.1291
0.7845 -0.2698 -0.5584   0.7845 -0.2698 -0.5584
0.8237 -0.2218 -0.5218   0.8237 -0.2218 -0.5218
0.1455 -0.8486 0.5086   0.1455 -0.8486 0.5086
0.1105 -0.834 0.5406   0.1105 -0.834 0.5406
0.3039 -0.3779 0.1218   -0.6078 0.7558 -0.2436
0.4552 -0.02108 -0.2058   -0.9104 0.04216 0.4117
0.6485 0.435 -0.6246   0.6485 0.435 -0.6246
0.6327 0.4254 -0.6471   0.6327 0.4254 -0.6471
0.3382 -0.1002 -0.3544   -0.6764 0.2005 0.7088
0.1405 -0.4532 -0.1578   -0.281 0.9063 0.3157
-0.154 -0.9788 0.1349   -0.154 -0.9788 0.1349
0.3183 -0.7868 0.5288   0.3183 -0.7868 0.5288
0.4338 -0.2041 0.8776   0.4338 -0.2041 0.8776
0.3464 0.09015 0.9338   0.3464 0.09015 0.9338
-0.4226 0.7057 0.5686   -0.4226 0.7057 0.5686
-0.6051 0.6721 0.4268   -0.6051 0.6721 0.4268
-0.9738 -0.201 -0.1067   -0.9738 -0.201 -0.1067
-0.946 -0.2839 -0.1563   -0.946 -0.2839 -0.1563
-0.4996 -0.01169 0.01562   0.9992 0.02339 -0.03123
0.1593 0.39 0.2693   -0.3185 -0.78 -0.5386
0.6057 0.6622 0.4412   0.6057 0.6622 0.4412
0.5793 0.6387 0.5064   0.5793 0.6387 0.5064
-0.5366 -0.1162 0.8358   -0.5366 -0.1162 0.8358
-0.5742 -0.1296 0.8084   -0.5742 -0.1296 0.8084
-0.07943 0.2862 0.4022   0.1589 -0.5725 -0.8044
0.06261 0.4056 0.2856   -0.1252 -0.8112 -0.5711
0.5574 0.8215 -0.1206   0.5574 0.8215 -0.1206
0.5415 0.8228 -0.1726   0.5415 0.8228 -0.1726
0.03712 0.4823 -0.1263   -0.07425 -0.9647 0.2527
-0.4742 0.1371 -0.07946   0.9484 -0.2743 0.1589
-0.9785 -0.2033 -0.03323   -0.9785 -0.2033 -0.03323
-0.921 -0.3858 0.05316   -0.921 -0.3858 0.05316
-0.3445 -0.8667 0.3606   -0.3445 -0.8667 0.3606
-0.189 -0.9051 0.3809   -0.189 -0.9051 0.3809
-0.1428 -0.4721 0.08178   0.2856 0.9443 -0.1636
-0.06496 0.2586 -0.423   0.1299 -0.5171 0.846
-0.01882 0.6916 -0.7221   -0.01882 0.6916 -0.7221
0.07912 0.8495 -0.5217   0.07912 0.8495 -0.5217
0.2233 0.9693 -0.1031   0.2233 0.9693 -0.1031
0.2869 0.9417 0.1759   0.2869 0.9417 0.1759
0.1468 0.38 0.2899   -0.2936 -0.76 -0.5798
-0.01504 -0.2685 0.4215   0.03007 0.537 -0.8431
-0.1552 -0.8301 0.5355   -0.1552 -0.8301 0.5355
-0.1569 -0.8525 0.4987   -0.1569 -0.8525 0.4987
-0.03791 -0.4528 0.2086   0.07583 0.9056 -0.4172
0.189 0.3092 -0.3445   -0.3781 -0.6184 0.6889
0.3081 0.7089 -0.6345   0.3081 0.7089 -0.6345
0.9533 0.2916 -0.07843   0.9533 0.2916 -0.07843
-0.2277 -0.335 0.9143   -0.2277 -0.335 0.9143
-0.2582 -0.3315 0.9074   -0.2582 -0.3315 0.9074
0.02665 -0.07446 0.4937   -0.05331 0.1489 -0.9874
0.4128 0.274 -0.06717   -0.8257 -0.5479 0.1343
0.6977 0.531 -0.4809   0.6977 0.531 -0.4809
0.5097 0.8165 -0.2713   0.5097 0.8165 -0.2713
0.5256 0.1863 0.8301   0.5256 0.1863 0.8301
0.5022 0.1694 0.848   0.5022 0.1694 0.848
0.1982 0.8516 -0.4853   0.1982 0.8516 -0.4853
0.7945 0.607 -0.01471   0.7945 0.607 -0.01471
-0.2788 -0.3448 0.8963   -0.2788 -0.3448 0.8963
-0.4089 -0.3643 0.8367   -0.4089 -0.3643 0.8367
-0.9477 0.06384 -0.3128   -0.9477 0.06384 -0.3128
-0.9155 -0.06456 -0.3971   -0.9155 -0.06456 -0.3971
-0.5308 -0.814 -0.236   -0.5308 -0.814 -0.236
-0.402 -0.9061 -0.132   -0.402 -0.9061 -0.132
-0.1413 -0.3679 0.3077   0.2826 0.7358 -0.6155
-0.04709 -0.1735 0.4666   0.09418 0.347 -0.9331
0.2137 0.3647 0.9063   0.2137 0.3647 0.9063
0.7999 0.4861 0.352   0.7999 0.4861 0.352
0.8168 0.007019 -0.5769   0.8168 0.007019 -0.5769
0.7449 -0.1145 -0.6572   0.7449 -0.1145 -0.6572
0.2509 -0.3959 -0.1741   -0.5017 0.7918 0.3483
0.07929 -0.4936 -0.006375   -0.1586 0.9873 0.01275
-0.4148 -0.775 0.4767   -0.4148 -0.775 0.4767
0.3757 -0.8606 0.3438   0.3757 -0.8606 0.3438
0.5781 -0.7705 -0.2687   0.5781 -0.7705 -0.2687
0.6745 -0.6493 -0.3514   0.6745 -0.6493 -0.3514
0.8244 -0.07155 0.5615   0.8244 -0.07155 0.5615
0.738 0.02164 0.6745   0.738 0.02164 0.6745
0.01328 0.05305 0.497   -0.02656 -0.1061 -0.994
-0.2366 0.06388 0.4358   0.4733 -0.1278 -0.8716
-0.9613 0.09529 0.2583   -0.9613 0.09529 0.2583
-0.9669 0.07936 0.2425   -0.9669 0.07936 0.2425
-0.3966 -0.03419 0.3025   0.7933 0.06838 -0.605
0.2848 -0.1699 0.3742   -0.5696 0.3398 -0.7484
0.8551 -0.2834 0.4342   0.8551 -0.2834 0.4342
0.9238 -0.1209 0.3633   0.9238 -0.1209 0.3633
-0.2882 -0.8413 -0.4574   -0.2882 -0.8413 -0.4574
-0.3266 -0.7886 -0.521   -0.3266 -0.7886 -0.521
0.398 0.721 -0.5673   0.398 0.721 -0.5673
0.861 0.4539 -0.2294   0.861 0.4539 -0.2294
0.7149 0.3893 -0.5808   0.7149 0.3893 -0.5808
0.5778 0.3017 -0.7583   0.5778 0.3017 -0.7583
0.4528 0.09239 -0.1909   -0.9056 -0.1848 0.3817
0.332 -0.1098 0.3574   -0.664 0.2196 -0.7147
0.207 -0.3191 0.9248   0.207 -0.3191 0.9248
0.06714 -0.2985 0.952   0.06714 -0.2985 0.952
-0.9202 0.181 0.347   -0.9202 0.181 0.347
-0.9353 0.1731 0.3086   -0.9353 0.1731 0.3086
0.3147 -0.619 0.7196   0.3147 -0.619 0.7196
0.8884 -0.393 0.2372   0.8884 -0.393 0.2372
0.09468 -0.8267 -0.5547   0.09468 -0.8267 -0.5547
-0.09577 -0.6996 -0.7081   -0.09577 -0.6996 -0.7081
-0.4297 -0.007439 -0.9029   -0.4297 -0.007439 -0.9029
-0.4856 0.1738 -0.8567   -0.4856 0.1738 -0.8567
-0.3174 0.1651 -0.3492   0.6349 -0.3302 0.6985
-0.04444 0.151 0.4746   0.08887 -0.3021 -0.9491
0.1237 0.1424 0.982   0.1237 0.1424 0.982
0.1568 0.3317 0.9303   0.1568 0.3317 0.9303
0.1584 0.8227 0.546   0.1584 0.8227 0.546
0.2256 0.9206 0.3188   0.2256 0.9206 0.3188
0.8895 -0.008461 -0.4568   0.8895 -0.008461 -0.4568
0.9034 -0.03885 -0.427   0.9034 -0.03885 -0.427
0.3512 0.6192 0.7023   0.3512 0.6192 0.7023
0.4064 0.3079 0.8602   0.4064 0.3079 0.8602
0.4456 0.1719 0.8786   0.4456 0.1719 0.8786
0.3849 -0.2166 0.8972   0.3849 -0.2166 0.8972
-0.6409 -0.3051 0.7044   -0.6409 -0.3051 0.7044
-0.7054 -0.27 0.6553   -0.7054 -0.27 0.6553
0.798 0.4463 0.4051   0.798 0.4463 0.4051
0.8006 0.4457 0.4004   0.8006 0.4457 0.4004
-0.74 -0.317 0.5933   -0.74 -0.317 0.5933
-0.819 -0.3243 0.4734   -0.819 -0.3243 0.4734
-0.605 0.08552 -0.7916   -0.605 0.08552 -0.7916
-0.8673 -0.406 -0.288   -0.8673 -0.406 -0.288
-0.4804 -0.1351 0.03105   0.9608 0.2702 -0.06209
0.02587 0.2193 0.4486   -0.05174 -0.4387 -0.8972
0.4128 0.4902 0.7677   0.4128 0.4902 0.7677
0.3968 0.4706 0.7881   0.3968 0.4706 0.7881
-0.8275 -0.504 0.2473   -0.8275 -0.504 0.2473
-0.8518 -0.4632 0.2446   -0.8518 -0.4632 0.2446
-0.1562 0.7525 0.6398   -0.1562 0.7525 0.6398
-0.004735 0.7943 0.6075   -0.004735 0.7943 0.6075
0.9869 0.02308 -0.1599   0.9869 0.02308 -0.1599
0.8867 0.03697 0.4609   0.8867 0.03697 0.4609
0.4643 -0.001622 0.1856   -0.9285 0.003244 -0.3713
-0.3523 -0.07622 -0.3465   0.7046 0.1524 0.693
-0.7747 -0.1148 -0.6218   -0.7747 -0.1148 -0.6218
-0.7632 -0.1854 -0.619   -0.7632 -0.1854 -0.619
0.3659 -0.9287 0.05998   0.3659 -0.9287 0.05998
0.07613 -0.8236 0.562   0.07613 -0.8236 0.562
0.04884 0.2201 0.9742   0.04884 0.2201 0.9742
-0.002702 0.3255 0.9455   -0.002702 0.3255 0.9455
-0.294 0.04117 0.4023   0.5881 -0.08233 -0.8046
-0.4768 -0.1373 0.06142   0.9537 0.2746 -0.1228
-0.7682 -0.4217 -0.4818   -0.7682 -0.4217 -0.4818
-0.69 -0.3863 -0.6121   -0.69 -0.3863 -0.6121
0.2742 0.2409 -0.931   0.2742 0.2409 -0.931
0.3988 0.2482 -0.8828   0.3988 0.2482 -0.8828
0.3825 -0.826 0.414   0.3825 -0.826 0.414
0.3653 -0.8238 0.4335   0.3653 -0.8238 0.4335
0.2787 -0.4114 0.0553   -0.5575 0.8228 -0.1106
0.1628 0.141 -0.4512   -0.3257 -0.2819 0.9025
0.0763 0.5534 -0.8294   0.0763 0.5534 -0.8294
0.08285 0.4945 -0.8652   0.08285 0.4945 -0.8652
0.2972 -0.7885 -0.5385   0.2972 -0.7885 -0.5385
0.3569 -0.8386 -0.4116   0.3569 -0.8386 -0.4116
0.7726 0.1174 0.624   0.7726 0.1174 0.624
0.6714 0.037 0.7401   0.6714 0.037 0.7401
0.1941 -0.5353 0.822   0.1941 -0.5353 0.822
0.173 -0.632 0.7554   0.173 -0.632 0.7554
0.9785 -0.1565 0.1345   0.9785 -0.1565 0.1345
0.9264 0.3618 0.104   0.9264 0.3618 0.104
0.4823 -0.8547 -0.1922   0.4823 -0.8547 -0.1922
0.3798 -0.8834 -0.2743   0.3798 -0.8834 -0.2743
-0.288 0.3591 -0.8878   -0.288 0.3591 -0.8878
-0.3313 0.419 -0.8454   -0.3313 0.419 -0.8454
-0.2721 0.2026 -0.3673   0.5443 -0.4051 0.7346
-0.1723 -0.163 0.4402   0.3445 0.3261 -0.8803
-0.1131 -0.3795 0.9182   -0.1131 -0.3795 0.9182
0.4218 -0.3227 0.8473   0.4218 -0.3227 0.8473
-0.889 0.3714 0.2678   -0.889 0.3714 0.2678
-0.9247 0.3458 0.1591   -0.9247 0.3458 0.1591
-0.05236 -0.7122 -0.7   -0.05236 -0.7122 -0.7
-0.04869 -0.6733 -0.7377   -0.04869 -0.6733 -0.7377
-0.6901 0.557 -0.462   -0.6901 0.557 -0.462
-0.6896 0.6256 -0.3648   -0.6896 0.6256 -0.3648
-0.3506 0.3558 0.02304   0.7011 -0.7115 -0.04608
0.06233 0.02719 0.4954   -0.1247 -0.05439 -0.9907
0.4014 -0.2426 0.8832   0.4014 -0.2426 0.8832
0.4355 -0.2695 0.8589   0.4355 -0.2695 0.8589
0.2934 -0.1556 0.3737   -0.5869 0.3112 -0.7475
0.03884 0.04865 -0.4961   -0.07768 -0.0973 0.9922
-0.1032 0.1626 -0.9813   -0.1032 0.1626 -0.9813
-0.6136 0.4819 -0.6255   -0.6136 0.4819 -0.6255
-0.8832 0.3761 0.2802   -0.8832 0.3761 0.2802
-0.848 0.2461 0.4694   -0.848 0.2461 0.4694
-0.007642 -0.8036 0.5951   -0.007642 -0.8036 0.5951
-0.03461 -0.6477 0.7611   -0.03461 -0.6477 0.7611
-0.1451 -0.3919 0.9085   -0.1451 -0.3919 0.9085
-0.1844 -0.07048 0.9803   -0.1844 -0.07048 0.9803
0.7678 0.6391 -0.04491   0.7678 0.6391 -0.04491
0.4863 0.7719 0.4094   0.4863 0.7719 0.4094
-0.8758 0.4771 -0.07343   -0.8758 0.4771 -0.07343
-0.8723 0.4568 -0.1742   -0.8723 0.4568 -0.1742
0.3889 0.5165 -0.7629   0.3889 0.5165 -0.7629
0.8144 -0.1614 -0.5574   0.8144 -0.1614 -0.5574
0.3671 0.1237 -0.3162   -0.7342 -0.2473 0.6323
-0.1736 0.4682 -0.02458   0.3473 -0.9365 0.04915
-0.621 0.7533 0.2166   -0.621 0.7533 0.2166
-0.5203 0.8102 0.27   -0.5203 0.8102 0.27
0.446 0.836 0.3196   0.446 0.836 0.3196
0.558 0.756 0.3421   0.558 0.756 0.3421
0.1261 0.234 0.4235   -0.2521 -0.468 -0.847
-0.1376 -0.0847 0.4732   0.2753 0.1694 -0.9463
-0.5696 -0.6067 0.5545   -0.5696 -0.6067 0.5545
-0.5854 -0.6668 0.4612   -0.5854 -0.6668 0.4612
0.126 -0.3432 -0.9308   0.126 -0.3432 -0.9308
0.1434 -0.4602 -0.8761   0.1434 -0.4602 -0.8761
0.01635 -0.9459 -0.3241   0.01635 -0.9459 -0.3241
-0.01518 -0.99 -0.1399   -0.01518 -0.99 -0.1399
0.01278 -0.4992 -0.02443   -0.02555 0.9985 0.04885
0.06703 0.4534 0.1997   -0.1341 -0.9069 -0.3995
0.09498 0.9443 0.3152   0.09498 0.9443 0.3152
0.09918 0.9712 0.2169   0.09918 0.9712 0.2169
0.08603 0.289 -0.9534   0.08603 0.289 -0.9534
0.01734 0.2626 -0.9648   0.01734 0.2626 -0.9648
-0.6755 0.7181 0.1674   -0.6755 0.7181 0.1674
-0.6754 0.6867 0.2687   -0.6754 0.6867 0.2687
-0.3313 0.3001 0.224   0.6626 -0.6002 -0.4479
0.2809 -0.3876 0.1444   -0.5617 0.7753 -0.2888
0.625 -0.7742 0.09964   0.625 -0.7742 0.09964
0.5336 -0.8291 -0.167   0.5336 -0.8291 -0.167
0.3305 -0.8025 -0.4968   0.3305 -0.8025 -0.4968
0.6487 -0.5511 -0.5249   0.6487 -0.5511 -0.5249
0.7565 0.6037 -0.2514   0.7565 0.6037 -0.2514
0.7598 0.6082 -0.23   0.7598 0.6082 -0.23
0.9673 0.2054 -0.149   0.9673 0.2054 -0.149
0.9899 -0.1278 -0.0613   0.9899 -0.1278 -0.0613
-0.01748 -0.9525 0.3039   -0.01748 -0.9525 0.3039
-0.1133 -0.9621 0.2479   -0.1133 -0.9621 0.2479
0.006224 0.04742 -0.9989   0.006224 0.04742 -0.9989
0.61 0.4431 -0.657   0.61 0.4431 -0.657
0.4698 0.1087 -0.1323   -0.9396 -0.2173 0.2646
0.3515 -0.1735 0.3104   -0.703 0.347 -0.6208
0.2113 -0.508 0.8351   0.2113 -0.508 0.8351
0.1553 -0.5671 0.8089   0.1553 -0.5671 0.8089
-0.2767 -0.5917 -0.7571   -0.2767 -0.5917 -0.7571
-0.2941 -0.5257 -0.7982   -0.2941 -0.5257 -0.7982
-0.2189 -0.1773 -0.4131   0.4377 0.3546 0.8262
-0.08923 0.4234 0.2506   0.1785 -0.8467 -0.5012
-0.01402 0.7718 0.6357   -0.01402 0.7718 0.6357
0.2139 0.6394 0.7385   0.2139 0.6394 0.7385
0.5192 0.3528 0.7784   0.5192 0.3528 0.7784
0.8647 0.396 0.3089   0.8647 0.396 0.3089
0.4622 0.8839 -0.07133   0.4622 0.8839 -0.07133
0.4155 0.9026 -0.1122   0.4155 0.9026 -0.1122
0.9213 0.02697 0.388   0.9213 0.02697 0.388
0.8797 -0.1595 0.4479   0.8797 -0.1595 0.4479
-0.4305 -0.8484 0.308   -0.4305 -0.8484 0.308
0.02097 -0.9346 -0.3551   0.02097 -0.9346 -0.3551
-0.1898 -0.3497 -0.3028   0.3796 0.6993 0.6057
-0.3851 0.1923 -0.2544   0.7703 -0.3846 0.5087
-0.5959 0.7772 -0.2021   -0.5959 0.7772 -0.2021
-0.5612 0.8203 -0.1103   -0.5612 0.8203 -0.1103
0.3427 0.07841 0.9362   0.3427 0.07841 0.9362
0.3974 0.06446 0.9154   0.3974 0.06446 0.9154
0.1449 0.7422 -0.6544   0.1449 0.7422 -0.6544
0.1435 0.7209 -0.678   0.1435 0.7209 -0.678
0.2249 0.3688 -0.2518   -0.4498 -0.7377 0.5036
0.339 -0.1247 0.3458   -0.6779 0.2494 -0.6915
0.4203 -0.4768 0.772   0.4203 -0.4768 0.772
0.584 -0.5096 0.6318   0.584 -0.5096 0.6318
0.8713 -0.4454 0.2061   0.8713 -0.4454 0.2061
0.9244 -0.3784 -0.04799   0.9244 -0.3784 -0.04799
0.397 -0.191 -0.2365   -0.7939 0.3819 0.4731
-0.2095 0.02454 -0.4533   0.419 -0.04909 0.9066
-0.7369 0.212 -0.6419   -0.7369 0.212 -0.6419
-0.7832 0.2723 -0.559   -0.7832 0.2723 -0.559
-0.2185 0.5767 0.7872   -0.2185 0.5767 0.7872
-0.2273 0.4902 0.8414   -0.2273 0.4902 0.8414
-0.7763 -0.5801 0.2466   -0.7763 -0.5801 0.2466
-0.8102 -0.5713 0.1314   -0.8102 -0.5713 0.1314
-0.5554 0.7156 -0.4236   -0.5554 0.7156 -0.4236
-0.8772 0.3949 -0.2732   -0.8772 0.3949 -0.2732
-0.4291 -0.2466 0.869   -0.4291 -0.2466 0.869
-0.2713 -0.3942 0.878   -0.2713 -0.3942 0.878
0.3874 -0.882 0.2682   0.3874 -0.882 0.2682
0.4597 -0.8806 0.115   0.4597 -0.8806 0.115
0.2364 -0.414 -0.1509   -0.4727 0.828 0.3017
-0.03545 0.1539 -0.4744   0.07089 -0.3078 0.9488
-0.2588 0.6205 -0.7403   -0.2588 0.6205 -0.7403
-0.2623 0.7019 -0.6623   -0.2623 0.7019 -0.6623
0.1495 0.6591 0.737   0.1495 0.6591 0.737
0.2296 0.5634 0.7937   0.2296 0.5634 0.7937
0.7801 -0.6168 -0.1049   0.7801 -0.6168 -0.1049
0.6574 -0.7129 -0.2441   0.6574 -0.7129 -0.2441
-0.2561 -0.7362 -0.6265   -0.2561 -0.7362 -0.6265
-0.4428 -0.8742 -0.1994   -0.4428 -0.8742 -0.1994
-0.4117 -0.2763 0.06444   0.8235 0.5525 -0.1289
-0.3884 0.1734 0.2628   0.7768 -0.3468 -0.5257
-0.3574 0.7713 0.5266   -0.3574 0.7713 0.5266
-0.2418 0.831 0.5009   -0.2418 0.831 0.5009
0.8843 0.415 -0.2141   0.8843 0.415 -0.2141
0.8921 0.4042 -0.2021   0.8921 0.4042 -0.2021
-0.1922 0.7203 0.6665   -0.1922 0.7203 0.6665
-0.0308 0.7669 0.6411   -0.0308 0.7669 0.6411
0.3856 0.7932 0.4714   0.3856 0.7932 0.4714
0.6281 0.6836 0.3717   0.6281 0.6836 0.3717
0.3768 -0.8015 0.4644   0.3768 -0.8015 0.4644
0.3566 -0.7869 0.5036   0.3566 -0.7869 0.5036
0.3672 0.4938 0.7882   0.3672 0.4938 0.7882
0.1953 0.6464 0.7376   0.1953 0.6464 0.7376
-0.6193 0.7019 0.352   -0.6193 0.7019 0.352
-0.7298 0.6434 0.231   -0.7298 0.6434 0.231
-0.4101 0.2843 0.03146   0.8203 -0.5685 -0.06291
0.1548 -0.3505 -0.3212   -0.3096 0.701 0.6425
0.4745 -0.7096 -0.5208   0.4745 -0.7096 -0.5208
0.6651 -0.6075 -0.4342   0.6651 -0.6075 -0.4342
0.9716 -0.1951 -0.1335   0.9716 -0.1951 -0.1335
0.9128 -0.3919 0.1149   0.9128 -0.3919 0.1149
0.889 -0.4389 0.1306   0.889 -0.4389 0.1306
0.614 -0.7717 0.1656   0.614 -0.7717 0.1656
-0.3998 -0.3539 -0.8455   -0.3998 -0.3539 -0.8455
-0.413 -0.3406 -0.8446   -0.413 -0.3406 -0.8446
0.6351 -0.6625 0.3971   0.6351 -0.6625 0.3971
0.6244 -0.7117 0.322   0.6244 -0.7117 0.322
0.194 -0.8432 -0.5014   0.194 -0.8432 -0.5014
-0.08899 -0.8629 -0.4975   -0.08899 -0.8629 -0.4975
-0.5093 -0.849 -0.1405   -0.5093 -0.849 -0.1405
-0.6361 -0.7714 0.02019   -0.6361 -0.7714 0.02019
-0.281 -0.4133 -0.01487   0.562 0.8266 0.02973
0.4062 0.2796 -0.08271   -0.8124 -0.5592 0.1654
0.7613 0.6377 -0.1178   0.7613 0.6377 -0.1178
0.7556 0.6418 -0.1311   0.7556 0.6418 -0.1311
0.3656 0.2991 -0.1638   -0.7313 -0.5983 0.3276
-0.3254 -0.3081 -0.2217   0.6508 0.6163 0.4435
-0.7153 -0.6508 -0.2544   -0.7153 -0.6508 -0.2544
-0.6712 -0.7324 -0.1141   -0.6712 -0.7324 -0.1141
-0.09394 -0.8024 0.5893   -0.09394 -0.8024 0.5893
0.0498 -0.7868 0.6153   0.0498 -0.7868 0.6153
0.3315 -0.4215 -0.8441   0.3315 -0.4215 -0.8441
-0.1175 -0.4112 -0.904   -0.1175 -0.4112 -0.904
-0.143 0.5568 -0.8182   -0.143 0.5568 -0.8182
0.03658 0.8421 -0.5382   0.03658 0.8421 -0.5382
0.4015 -0.4158 -0.816   0.4015 -0.4158 -0.816
0.4167 -0.4047 -0.814   0.4167 -0.4047 -0.814
0.2206 0.8056 -0.5499   0.2206 0.8056 -0.5499
0.1186 0.4888 -0.8643   0.1186 0.4888 -0.8643
-0.9839 0.05162 0.1712   -0.9839 0.05162 0.1712
-0.9886 0.1354 0.06595   -0.9886 0.1354 0.06595
-0.7605 0.4644 -0.4537   -0.7605 0.4644 -0.4537
-0.5847 0.6973 -0.4146   -0.5847 0.6973 -0.4146
-0.4082 0.9128 0.009595   -0.4082 0.9128 0.009595
-0.2352 0.9423 0.2384   -0.2352 0.9423 0.2384
0.9126 -0.2951 0.2829   0.9126 -0.2951 0.2829
0.7704 -0.4529 0.4488   0.7704 -0.4529 0.4488
0.4163 -0.5688 0.7093   0.4163 -0.5688 0.7093
0.3776 -0.3975 0.8363   0.3776 -0.3975 0.8363
0.6025 -0.09721 0.7921   0.6025 -0.09721 0.7921
0.7171 0.128 0.6851   0.7171 0.128 0.6851
0.3755 0.0345 0.3284   -0.751 -0.06899 -0.6567
-0.2967 -0.1494 -0.3736   0.5935 0.2989 0.7473
-0.6384 -0.2429 -0.7304   -0.6384 -0.2429 -0.7304
-0.7015 -0.1873 -0.6876   -0.7015 -0.1873 -0.6876
-0.65 0.5805 0.4904   -0.65 0.5805 0.4904
-0.5956 0.5716 0.5644   -0.5956 0.5716 0.5644
-0.3317 0.1285 0.3514   0.6633 -0.2569 -0.7028
0.04007 -0.4957 0.0514   -0.08014 0.9915 -0.1028
0.304 -0.9389 -0.1616   0.304 -0.9389 -0.1616
0.3936 -0.9144 -0.09479   0.3936 -0.9144 -0.09479
0.6962 -0.1028 0.7105   0.6962 -0.1028 0.7105
0.5905 0.1009 0.8007   0.5905 0.1009 0.8007
-0.2588 0.661 0.7043   -0.2588 0.661 0.7043
-0.4385 0.6685 0.6006   -0.4385 0.6685 0.6006
-0.8345 -0.363 -0.4144   -0.8345 -0.363 -0.4144
-0.8451 -0.3571 -0.3979   -0.8451 -0.3571 -0.3979
-0.6247 0.5292 0.5742   -0.6247 0.5292 0.5742
-0.4985 0.5303 0.6858   -0.4985 0.5303 0.6858
0.5139 -0.391 0.7636   0.5139 -0.391 0.7636
0.5181 -0.4511 0.7267   0.5181 -0.4511 0.7267
-0.1579 -0.2216 0.4195   0.3158 0.4432 -0.839
-0.3213 -0.1661 0.3453   0.6425 0.3322 -0.6905
-0.9973 0.06336 0.03804   -0.9973 0.06336 0.03804
-0.982 0.1661 0.0897   -0.982 0.1661 0.0897
-0.2122 0.6355 0.7424   -0.2122 0.6355 0.7424
-0.01324 0.7227 0.6911   -0.01324 0.7227 0.6911
0.5105 0.8323 -0.216   0.5105 0.8323 -0.216
0.4781 0.8025 -0.3568   0.4781 0.8025 -0.3568
-0.9336 0.2314 -0.2736   -0.9336 0.2314 -0.2736
-0.9686 0.1564 -0.1934   -0.9686 0.1564 -0.1934
0.2893 -0.2596 0.9214   0.2893 -0.2596 0.9214
0.2708 -0.3522 0.8959   0.2708 -0.3522 0.8959
-0.5041 -0.8523 0.1395   -0.5041 -0.8523 0.1395
-0.6071 -0.7946 -0.007794   -0.6071 -0.7946 -0.007794
-0.6269 0.5594 -0.5423   -0.6269 0.5594 -0.5423
-0.6454 0.6575 -0.3888   -0.6454 0.6575 -0.3888
-0.713 0.5571 0.4257   -0.713 0.5571 0.4257
-0.5057 0.5812 0.6375   -0.5057 0.5812 0.6375
0.163 0.7275 0.6665   0.163 0.7275 0.6665
0.312 0.7278 0.6106   0.312 0.7278 0.6106
-0.1487 0.4295 0.2084   0.2975 -0.859 -0.4167
-0.4341 0.2447 -0.04081   0.8682 -0.4894 0.08162
-0.8949 -0.05362 -0.4431   -0.8949 -0.05362 -0.4431
-0.8459 -0.06612 -0.5292   -0.8459 -0.06612 -0.5292
0.5527 0.3413 -0.7603   0.5527 0.3413 -0.7603
0.7004 0.1731 -0.6924   0.7004 0.1731 -0.6924
0.7761 -0.4788 -0.4104   0.7761 -0.4788 -0.4104
0.5932 -0.7324 -0.3342   0.5932 -0.7324 -0.3342
-0.1587 -0.9118 -0.3787   -0.1587 -0.9118 -0.3787
0.1491 -0.9705 0.1896   0.1491 -0.9705 0.1896
-0.7454 -0.4514 -0.4906   -0.7454 -0.4514 -0.4906
-0.7196 -0.4941 -0.4879   -0.7196 -0.4941 -0.4879
-0.08516 -0.9928 -0.08463   -0.08516 -0.9928 -0.08463
0.03501 -0.9994 -0.0005471   0.03501 -0.9994 -0.0005471
-0.03967 -0.4983 -0.009141   0.07934 0.9967 0.01828
-0.1832 0.4645 -0.02566   0.3664 -0.9291 0.05131
-0.2579 0.9656 -0.03425   -0.2579 0.9656 -0.03425
-0.2045 0.9778 -0.04511   -0.2045 0.9778 -0.04511
0.2166 0.439 -0.1016   -0.4332 -0.8781 0.2032
0.4663 0.1196 -0.1351   -0.9326 -0.2391 0.2702
0.8874 -0.4192 -0.1916   0.8874 -0.4192 -0.1916
0.8823 -0.4566 -0.1138   0.8823 -0.4566 -0.1138
-0.0427 0.1725 0.9841   -0.0427 0.1725 0.9841
0.1015 0.2564 0.9612   0.1015 0.2564 0.9612
0.7866 -0.2281 0.5737   0.7866 -0.2281 0.5737
0.8484 -0.2467 0.4683   0.8484 -0.2467 0.4683
-0.3119 0.947 0.07651   -0.3119 0.947 0.07651
-0.2131 0.9768 -0.02245   -0.2131 0.9768 -0.02245
0.5596 0.756 -0.3395   0.5596 0.756 -0.3395
0.5764 0.7537 -0.3156   0.5764 0.7537 -0.3156
-0.1653 0.9774 0.1317   -0.1653 0.9774 0.1317
-0.3447 0.8977 0.2745   -0.3447 0.8977 0.2745
-0.54 -0.3964 0.7425   -0.54 -0.3964 0.7425
-0.8467 -0.4553 0.2753   -0.8467 -0.4553 0.2753
-0.3288 0.3098 0.8921   -0.3288 0.3098 0.8921
-0.3114 0.529 0.7894   -0.3114 0.529 0.7894
-0.4901 0.8471 0.2055   -0.4901 0.8471 0.2055
-0.5116 0.8592 -0.002816   -0.5116 0.8592 -0.002816
-0.3362 0.3366 -0.1539   0.6724 -0.6731 0.3079
-0.109 -0.3404 -0.3497   0.218 0.6807 0.6993
0.06638 -0.863 -0.5008   0.06638 -0.863 -0.5008
-0.005654 -0.9034 -0.4288   -0.005654 -0.9034 -0.4288
-0.8132 -0.4693 0.3442   -0.8132 -0.4693 0.3442
-0.8691 -0.3834 0.3125   -0.8691 -0.3834 0.3125
-0.4219 -0.1093 -0.9   -0.4219 -0.1093 -0.9
-0.2658 0.09627 -0.9592   -0.2658 0.09627 -0.9592
-0.5303 0.7772 0.3386   -0.5303 0.7772 0.3386
-0.4267 0.7797 0.4583   -0.4267 0.7797 0.4583
0.8232 0.2184 0.524   0.8232 0.2184 0.524
0.8603 0.1544 0.4859   0.8603 0.1544 0.4859
0.4097 0.1183 0.2611   -0.8194 -0.2365 -0.5221
-0.4656 0.04812 -0.1758   0.9312 -0.09624 0.3516
-0.9162 0.01202 -0.4006   -0.9162 0.01202 -0.4006
-0.9101 -0.0227 -0.4138   -0.9101 -0.0227 -0.4138
